    0.0    0.0    0.0    0.0    0.0    0.0    0.0    1.1    2.0    2.6    1.1    3.2    5.5    8.3   11.4   14.2   15.5   16.9   17.8   18.4   20.0   21.4   23.7   25.8   26.9   28.1   30.1   32.4   34.5   35.3   36.2   39.1   42.4   45.5   48.7   51.1   52.8   54.4   56.0   57.7   61.6   65.8   70.0   74.3   79.2   84.7   94.2  103.7  113.1  122.0  130.9  135.9  138.3  140.7  142.7  144.0  144.7  145.1  145.6  146.1  146.5  147.0  146.7  146.4  146.1  145.8  145.7  146.0  146.2  146.4  146.6  146.5  145.5  143.4  141.3  139.1  131.3  121.2  111.2  101.2
    0.0    0.0    0.0    0.0    0.0    0.0    0.0    1.2    2.1    2.6    1.2    3.4    5.5    8.1   11.4   14.2   15.4   16.8   17.6   18.1   19.2   21.2   23.8   26.0   27.1   28.2   30.2   32.4   34.7   35.6   36.0   38.3   41.5   44.8   48.3   51.4   53.0   54.7   56.4   58.1   60.9   65.1   69.9   74.8   79.7   84.6   93.6  102.5  111.4  120.3  129.2  137.7  139.3  140.6  141.8  143.1  143.8  144.2  144.8  145.3  145.9  146.4  146.1  145.8  145.5  145.2  145.2  145.5  145.7  146.0  146.2  145.9  144.9  143.8  142.8  140.8  133.6  123.8  115.7  107.7
    0.0    0.0    0.0    0.0    0.0    0.0    0.1    1.3    2.3    2.6    1.3    3.9    5.4    7.9   11.3   14.1   15.4   16.7   17.4   17.9   18.8   21.5   24.2   26.2   27.2   28.2   30.2   32.3   34.5   36.0   36.0   37.4   40.9   44.4   48.0   51.6   53.4   55.1   56.8   58.5   60.8   65.8   70.7   75.7   80.6   85.6   93.5  102.4  111.3  120.2  129.0  137.8  139.5  140.6  141.7  142.9  143.7  144.2  144.7  145.2  145.7  146.1  145.8  145.5  145.3  145.1  145.1  145.3  145.5  145.7  145.7  145.6  144.8  143.8  142.8  141.8  136.3  127.9  120.1  112.2
    0.0    0.0    0.0    0.0    0.0    0.0    0.3    1.4    2.3    2.6    1.4    4.4    5.7    7.8   11.1   14.0   15.5   17.0   17.9   18.7   19.8   21.2   24.0   26.2   27.2   28.2   30.2   32.4   34.5   36.0   36.0   36.9   40.5   44.1   47.7   51.2   53.5   55.2   56.9   59.5   62.2   66.8   71.8   76.7   81.7   86.7   93.6  102.5  111.3  120.1  128.9  137.7  139.9  141.2  142.4  143.6  144.3  144.8  145.3  145.7  146.2  146.7  146.5  146.1  145.8  145.4  144.9  144.4  144.5  144.5  144.5  144.4  144.1  143.9  143.7  143.0  137.3  128.7  120.0  111.3
    0.0    0.0    0.0    0.0    0.0    0.0    0.4    1.4    2.3    2.5    1.6    4.8    6.1    7.7   11.1   14.4   16.1   17.6   18.7   19.5   20.7   22.1   23.7   25.8   27.2   28.2   30.2   32.4   34.5   36.1   36.4   36.7   40.1   43.7   47.3   50.8   53.5   55.7   58.4   61.0   63.7   67.9   72.8   77.8   82.8   87.8   93.6  102.4  111.2  120.0  127.9  135.3  140.0  141.2  142.4  143.8  144.5  145.0  145.5  146.0  146.5  147.0  146.6  146.4  146.3  146.0  145.5  145.0  144.4  143.8  143.3  143.2  143.0  143.2  143.4  143.6  139.4  130.8  122.1  113.4
    0.0    0.0    0.0    0.0    0.0    0.0    0.5    1.4    2.3    2.5    1.7    4.6    6.0    7.4   11.3   14.7   16.6   18.2   19.5   20.3   21.7   23.0   24.4   25.5   27.0   28.2   30.2   32.3   34.1   35.5   36.1   36.8   39.9   43.4   47.0   50.7   54.3   56.9   59.6   62.2   65.0   68.8   73.8   78.7   83.9   89.0   94.1  102.4  110.1  117.5  124.9  132.3  139.7  141.2  142.6  143.9  144.7  145.2  145.7  146.2  146.6  146.9  146.5  146.1  145.7  145.5  145.3  144.9  144.4  143.8  143.2  143.4  143.8  144.1  144.4  144.7  142.1  132.9  123.6  114.4
    0.0    0.0    0.0    0.0    0.0    0.0    0.6    1.4    2.3    2.5    1.8    4.4    5.9    7.2   11.3   14.8   16.9   18.8   20.2   21.2   22.6   23.5   24.0   25.0   26.5   28.0   29.7   31.4   33.2   34.8   36.1   36.8   39.8   43.4   47.4   51.3   55.2   57.9   60.6   63.5   66.3   69.8   74.8   79.9   84.9   89.9   95.0  101.5  109.0  116.6  124.1  130.9  137.6  140.9  142.2  143.2  144.5  145.4  145.9  146.4  146.6  146.6  146.2  145.8  145.4  145.0  144.6  144.2  143.9  143.5  143.1  143.6  144.1  144.4  144.8  144.6  142.4  135.3  126.5  117.2
    0.0    0.0    0.0    0.0    0.0    0.0    0.7    1.4    2.2    2.5    1.9    4.1    5.8    7.1   11.0   15.0   17.3   19.1   20.9   22.1   22.6   23.0   23.5   24.3   25.4   26.8   28.3   30.0   31.8   33.3   34.8   36.5   39.8   43.7   47.7   51.7   55.7   58.8   61.5   64.1   66.8   70.4   75.4   80.4   85.3   90.5   95.8  101.7  108.7  115.5  122.3  129.0  135.8  140.5  141.5  142.6  143.8  145.1  146.0  146.1  146.3  146.2  145.9  145.5  145.1  144.5  144.1  143.7  143.3  142.9  142.6  143.5  144.5  144.8  144.4  142.6  140.3  136.0  128.0  119.9
    0.0    0.0    0.0    0.0    0.0    0.0    0.8    1.4    2.2    2.5    2.1    3.9    5.5    7.0   10.8   14.9   17.6   19.3   20.9   21.2   21.3   21.7   22.1   22.8   24.1   25.6   27.0   28.7   30.5   32.2   33.9   35.5   38.1   42.1   46.1   50.3   54.6   58.4   61.0   64.1   67.7   71.2   75.8   80.8   86.1   90.6   95.1  100.5  107.3  114.0  120.8  127.8  134.4  139.7  141.5  142.6  143.4  144.5  145.6  145.7  145.9  145.7  145.4  145.1  144.6  144.1  143.7  143.3  142.9  142.5  142.1  143.0  144.3  144.7  144.1  143.4  139.5  135.5  128.7  120.6
    0.0    0.0    0.0    0.0    0.0    0.0    0.9    1.6    2.2    2.5    2.2    3.6    5.2    6.9   10.7   14.9   17.3   18.8   20.4   21.1   20.9   20.7   20.6   21.4   22.9   24.4   25.8   27.4   29.2   31.0   32.8   34.5   36.4   40.6   44.9   49.3   53.6   57.9   61.4   64.9   68.4   71.9   75.5   79.8   84.0   88.6   94.1   99.5  106.0  113.3  120.4  126.5  131.9  137.2  141.3  142.7  143.5  144.3  145.1  145.3  145.5  145.3  145.0  144.6  144.5  144.1  144.0  143.7  143.3  142.9  142.2  142.8  144.1  145.3  146.0  145.0  140.5  135.1  129.5  123.7
    0.0    0.0    0.0    0.0    0.0    0.1    1.0    1.8    2.2    2.4    2.3    3.7    5.4    7.3   10.9   15.1   17.0   18.3   19.9   20.9   20.7   20.5   20.4   21.1   22.3   23.4   24.6   26.1   27.9   29.8   31.8   33.9   36.7   40.8   45.2   49.6   53.3   57.0   60.5   64.0   67.2   70.2   73.2   77.3   82.2   87.7   93.5   99.3  106.0  112.5  118.6  124.1  129.4  134.6  139.9  142.4  143.5  144.3  145.0  145.0  145.1  144.9  144.4  144.0  144.1  144.2  144.0  144.0  143.7  143.1  142.3  142.7  143.9  145.1  146.3  147.4  143.5  137.6  131.6  126.4
    0.0    0.0    0.0    0.0    0.0    0.2    1.1    1.9    2.2    2.4    2.4    4.0    5.7    7.8   11.1   15.3   16.7   18.0   19.4   20.7   20.5   20.4   20.8   21.7   22.8   23.9   25.1   26.4   27.6   29.7   32.0   34.8   37.7   41.4   45.0   48.7   52.3   56.0   59.4   62.5   65.6   68.7   71.8   76.5   82.3   88.2   94.0   99.7  104.6  110.7  116.4  121.6  126.9  132.1  137.4  142.0  143.1  144.1  145.0  145.0  145.0  144.8  144.4  144.5  144.7  144.8  144.7  144.4  143.9  143.0  142.2  142.9  144.1  145.4  146.7  148.1  145.1  139.2  133.3  128.4
    0.0    0.0    0.0    0.0    0.0    0.3    1.2    1.9    2.1    2.4    2.7    4.2    5.9    8.4   11.4   15.1   16.4   17.7   19.0   20.4   20.4   20.9   21.3   22.4   23.7   24.9   26.1   27.4   28.0   30.1   32.8   35.6   38.3   41.3   45.0   48.7   52.6   56.7   60.5   63.7   66.8   70.2   73.7   77.8   83.7   89.5   94.5   98.6  102.8  108.6  113.8  119.1  124.3  129.6  135.2  140.9  142.3  143.3  144.5  145.2  145.0  144.8  145.0  145.1  145.2  145.4  145.2  144.6  144.0  143.5  142.5  143.7  145.1  146.5  148.0  149.3  145.8  139.7  136.1  132.6
    0.0    0.0    0.0    0.0    0.0    0.4    1.3    1.9    2.1    2.4    3.0    4.6    6.2    8.9   11.9   14.8   16.2   17.5   18.8   19.9   20.7   21.0   21.3   22.5   24.0   25.6   27.1   28.4   29.3   31.6   34.1   36.6   39.1   41.6   45.5   49.5   53.6   57.7   61.7   65.0   68.6   72.1   75.6   79.1   85.0   89.3   93.4   97.9  102.4  107.7  113.5  119.2  124.8  130.4  136.0  140.4  141.4  142.7  143.9  145.2  145.4  145.3  145.5  145.7  145.8  145.9  145.3  144.7  144.2  143.6  143.1  144.4  145.8  147.2  148.6  150.1  146.2  142.4  138.9  135.4
    0.0    0.0    0.0    0.0    0.0    0.5    1.3    1.9    2.1    2.4    3.3    4.9    6.5    9.5   12.5   14.5   15.8   17.0   18.0   19.1   20.2   20.9   21.4   22.6   24.2   25.8   27.4   29.0   30.5   32.7   35.0   37.4   39.7   42.0   45.4   49.5   53.6   58.0   62.5   66.3   69.9   73.5   77.1   80.8   85.0   89.5   94.0   98.5  103.0  108.0  113.8  119.5  125.2  131.0  136.6  139.5  140.8  142.1  143.3  144.6  145.8  145.9  146.0  146.0  146.0  146.0  145.8  145.6  145.4  145.0  144.6  145.8  147.1  148.3  149.6  150.6  148.4  144.8  141.2  137.6
    0.0    0.0    0.0    0.0    0.0    0.6    1.3    1.8    2.1    2.3    3.7    5.2    7.0   10.1   13.1   14.2   15.5   16.7   17.1   18.3   19.3   20.4   21.0   22.9   25.0   26.6   28.2   29.5   30.9   33.2   35.5   37.8   40.0   42.3   45.2   49.7   54.2   58.6   63.1   67.2   70.9   74.5   78.2   81.8   86.0   90.4   94.8   99.3  103.7  108.2  113.9  119.5  125.2  130.0  134.5  138.1  139.5  140.8  142.1  143.8  145.4  146.0  146.0  146.0  146.0  146.0  145.9  145.8  145.7  145.5  145.5  145.9  146.3  146.8  147.8  148.8  147.1  144.8  142.4  138.7
    0.0    0.0    0.0    0.0    0.0    0.7    1.3    1.8    2.1    2.2    3.9    5.5    7.5   10.7   13.8   14.3   15.2   16.3   16.6   17.4   18.5   19.6   20.7   22.7   25.0   27.2   28.6   29.7   31.3   33.6   35.8   38.1   40.3   42.5   44.1   48.6   53.2   57.9   63.2   68.2   71.9   75.6   79.2   82.9   86.6   90.6   94.5   98.4  103.0  108.1  113.7  118.8  123.3  127.8  132.5  137.2  138.9  140.5  142.2  143.9  145.6  146.0  146.0  146.0  146.0  146.0  146.0  146.0  146.0  146.0  145.9  146.2  146.5  146.8  147.1  147.4  145.4  143.0  140.7  138.3
    0.0    0.0    0.0    0.0    0.0    0.8    1.3    1.8    2.1    2.0    4.1    5.8    8.0   11.4   13.9   14.4   14.9   15.9   16.2   16.6   17.7   18.9   20.2   22.3   24.6   27.2   28.6   30.0   31.6   33.9   36.1   38.3   40.5   42.1   43.6   47.8   53.1   58.5   63.8   69.2   72.9   76.3   79.6   82.7   85.3   89.1   93.0   97.8  103.0  108.3  113.1  117.6  122.3  127.1  131.9  136.6  138.9  140.6  142.3  144.0  145.6  145.9  145.9  145.9  145.9  145.8  145.7  145.6  145.5  145.4  145.4  145.5  145.7  145.9  146.0  146.3  143.9  142.1  140.3  138.5
    0.0    0.0    0.0    0.0    0.1    0.8    1.3    1.8    2.0    2.0    4.1    6.1    8.5   12.1   14.0   14.4   14.9   15.5   15.9   16.4   17.2   18.5   19.8   21.9   24.6   27.1   28.5   29.9   31.7   34.0   36.3   38.5   40.2   41.8   43.9   47.8   53.2   58.6   63.9   68.9   72.7   76.0   79.2   81.8   84.5   87.7   92.7   98.2  103.7  109.2  114.2  118.6  123.1  127.5  131.9  136.3  138.9  140.5  142.1  143.7  145.2  145.5  145.4  145.4  145.4  145.3  145.2  145.1  145.0  144.8  144.8  145.0  145.1  145.3  145.3  145.1  143.6  142.2  140.8  139.1
    0.0    0.0    0.0    0.0    0.2    0.9    1.4    1.8    1.9    2.0    4.2    6.3    9.0   12.6   14.1   14.6   15.1   15.6   16.2   16.8   17.3   18.4   19.4   22.0   24.6   27.0   28.3   29.6   30.9   34.2   36.4   38.3   40.2   42.3   44.4   47.8   53.1   58.1   63.1   68.2   72.5   75.8   78.4   81.0   84.2   87.8   93.4   99.0  104.6  110.1  115.4  119.8  124.2  128.6  132.8  136.6  139.5  140.8  142.1  143.4  144.9  145.0  145.0  145.0  145.0  144.8  144.6  144.4  144.4  144.3  144.2  144.3  144.4  144.3  144.3  143.8  142.4  141.2  140.1  139.0
    0.0    0.0    0.0    0.0    0.3    1.0    1.5    1.8    1.7    2.0    4.2    6.5    9.2   12.6   14.6   15.1   15.6   16.0   16.5   17.1   17.6   18.4   19.7   22.0   24.7   26.8   28.1   29.4   31.0   33.9   36.6   38.8   41.0   43.2   45.0   47.6   52.5   57.5   62.4   67.4   72.2   75.2   78.5   81.7   85.0   88.3   93.6   99.2  104.9  110.6  116.4  120.9  125.3  129.2  133.0  136.8  140.2  141.3  142.4  143.5  144.7  145.0  145.0  144.9  144.5  144.1  144.0  144.0  144.0  144.0  144.0  144.0  144.0  144.0  143.8  143.4  142.5  141.5  140.4  139.2
    0.0    0.0    0.0    0.0    0.4    1.1    1.5    1.7    1.4    2.4    4.8    7.2    9.3   12.4   14.9   15.6   16.1   16.6   16.8   17.4   17.9   18.5   20.1   22.4   24.7   26.6   28.1   29.6   31.3   34.4   37.6   40.2   42.0   43.5   45.6   47.7   52.4   57.3   62.2   66.9   71.8   75.3   78.5   81.8   85.1   88.9   94.0   99.6  105.4  111.2  117.0  121.8  125.6  129.3  133.0  136.4  139.7  141.0  142.2  143.4  144.5  145.0  144.7  144.5  144.3  144.2  144.0  144.0  144.0  144.0  144.0  144.0  143.8  143.6  143.4  143.1  142.2  141.3  140.4  139.5
    0.0    0.0    0.0    0.0    0.4    1.1    1.5    1.6    1.5    3.1    5.5    7.9   10.1   12.2   15.1   16.0   16.7   17.1   17.3   17.7   18.2   18.7   20.3   22.6   24.9   27.0   29.1   30.8   32.7   35.9   38.2   40.4   41.9   44.0   46.2   48.3   52.0   56.7   61.5   66.3   71.1   75.1   78.4   82.0   85.8   89.5   94.3   99.7  105.1  110.4  116.3  121.8  125.5  129.1  132.3  135.6  138.9  140.8  141.9  143.1  144.3  144.8  144.6  144.4  144.2  144.1  143.9  143.7  143.7  143.6  143.6  143.6  143.4  143.2  143.0  143.0  142.8  142.0  141.2  140.5
    0.0    0.0    0.0    0.0    0.5    1.2    1.5    1.3    2.0    3.7    6.2    8.7   10.8   12.8   15.4   16.2   17.1   17.6   17.8   17.9   18.3   18.8   20.2   22.5   25.6   27.4   28.9   31.2   33.5   35.7   37.9   40.1   42.2   44.1   46.3   48.4   51.3   56.0   60.8   65.7   70.5   74.9   78.4   81.8   85.3   88.8   92.7   98.0  103.4  109.4  115.5  121.5  125.0  128.3  131.6  134.8  137.9  140.4  141.5  142.7  143.9  144.4  144.3  144.1  143.9  143.7  143.4  143.2  143.2  143.2  143.2  143.2  143.0  142.8  142.5  142.7  143.8  143.3  142.6  142.1
    0.0    0.0    0.0    0.0    0.6    1.2    1.4    1.6    2.7    4.5    6.9    9.4   11.6   13.6   15.5   16.4   17.2   17.5   17.5   17.5   18.1   18.8   20.1   23.2   26.3   27.8   29.3   30.8   33.0   35.3   37.6   39.8   42.1   44.3   46.5   48.6   50.8   55.4   60.3   65.2   69.6   74.0   77.5   80.9   84.4   87.9   91.3   96.6  102.5  108.4  114.4  120.3  124.3  127.6  130.7  133.8  136.9  140.0  141.2  142.4  143.2  143.9  144.0  143.7  143.6  143.4  143.2  143.0  143.0  143.0  143.0  142.8  142.6  142.3  142.1  142.5  143.5  144.6  144.0  143.8
    0.0    0.0    0.0    0.1    0.7    1.2    1.2    2.1    3.5    5.2    7.5    9.6   11.8   13.6   15.5   16.3   17.0   17.4   17.1   17.1   17.7   18.4   20.8   23.9   26.8   28.3   29.8   31.3   32.8   35.1   37.5   39.9   42.2   44.4   46.6   48.7   50.9   55.0   59.7   64.1   68.5   73.0   76.4   79.8   83.2   86.6   91.2   96.6  102.3  107.9  113.5  119.2  123.6  126.7  129.8  132.9  136.0  139.1  140.8  141.9  142.5  143.3  144.0  143.8  143.6  143.4  143.3  143.1  142.9  142.7  142.6  142.4  142.2  142.0  142.0  142.9  143.8  144.6  144.3  143.4
    0.0    0.0    0.0    0.2    0.7    1.2    1.7    2.6    4.0    5.5    7.3    9.5   11.7   13.6   15.5   16.2   16.9   17.3   16.8   16.7   17.2   17.7   20.8   24.7   27.3   28.8   30.1   31.3   32.5   34.9   37.3   39.9   42.4   44.8   46.9   49.0   51.2   54.5   59.2   63.9   67.9   71.4   74.8   78.2   81.7   86.9   92.2   97.4  103.1  108.7  113.6  118.4  122.8  125.9  129.0  132.1  135.1  138.2  140.5  141.3  142.1  142.9  143.8  143.9  143.7  143.5  143.3  143.1  142.9  142.7  142.5  142.2  142.0  142.0  142.4  143.3  143.6  143.5  143.4  142.5
    0.0    0.0    0.0    0.3    0.8    1.2    2.0    2.8    3.9    5.5    7.2    9.3   11.5   13.7   15.5   16.2   16.8   17.3   16.8   16.3   16.8   16.9   20.8   24.7   27.6   28.8   29.9   31.1   32.3   34.3   36.9   39.5   42.1   44.7   47.3   49.9   52.3   54.8   59.3   62.8   66.3   69.7   73.2   77.5   82.7   87.9   93.0   98.2  103.3  107.8  112.4  117.2  122.0  125.1  128.1  131.3  134.4  137.5  140.2  141.1  141.9  142.6  143.1  143.2  143.1  143.0  142.9  142.8  142.8  142.7  142.5  142.3  142.1  142.0  142.6  142.5  142.5  142.6  142.6  142.2
    0.0    0.0    0.0    0.3    0.9    1.2    2.1    3.0    3.9    5.4    7.2    9.2   11.3   13.5   15.4   16.1   16.8   17.2   16.7   16.2   16.3   17.2   20.9   24.9   27.3   28.7   30.1   31.3   32.6   34.1   35.7   38.3   41.0   43.7   46.3   49.1   51.8   54.6   58.1   61.5   65.0   68.4   71.6   76.4   81.3   86.1   93.0  100.7  106.5  110.9  115.4  118.4  121.2  124.4  127.7  131.0  134.2  137.4  140.1  140.9  141.3  141.7  142.2  142.4  142.3  142.3  142.3  142.3  142.2  142.2  142.1  142.0  141.9  141.8  141.9  141.9  142.0  142.0  142.1  142.1
    0.0    0.0    0.0    0.4    0.9    1.4    2.3    3.2    4.0    5.4    7.2    9.0   11.2   13.4   15.4   15.9   16.5   17.1   17.3   16.9   16.6   18.1   21.1   25.1   27.0   28.4   29.8   31.3   32.6   34.1   35.5   37.0   39.8   42.6   45.5   48.3   51.0   53.8   57.2   60.4   63.6   66.9   70.1   74.4   80.0   87.7   95.5  103.3  109.1  112.0  114.8  117.6  120.4  123.5  126.8  130.1  133.4  136.8  140.0  140.7  141.1  141.5  141.9  142.3  142.3  142.3  142.3  142.1  141.7  141.7  141.6  141.5  141.4  141.3  141.4  141.4  141.5  141.6  141.8  141.7
    0.0    0.0    0.0    0.5    1.0    1.6    2.5    3.3    4.2    5.3    7.1    8.9   10.7   12.6   14.5   15.6   16.2   16.7   17.5   17.5   17.1   19.0   21.3   25.2   26.6   28.1   29.4   30.5   31.7   33.1   34.5   35.9   38.4   41.2   44.1   47.0   50.0   52.8   55.9   59.1   62.3   65.5   68.9   73.8   81.1   88.5   95.6  102.1  108.6  111.5  114.3  117.1  119.8  122.8  126.2  129.6  133.0  136.1  139.2  141.0  141.5  142.0  142.5  142.9  142.7  142.3  142.0  141.6  141.3  141.2  141.1  141.0  141.0  141.0  141.1  141.3  141.4  141.6  141.4  141.3
    0.0    0.0    0.1    0.6    1.0    1.7    2.7    3.5    4.4    5.2    6.7    8.2    9.7   11.6   13.4   15.0   15.8   16.4   17.2   18.0   17.9   19.9   21.9   24.9   26.3   27.4   28.5   29.6   30.9   32.3   33.8   35.2   37.4   40.3   43.2   46.1   48.9   51.7   54.7   58.2   61.9   65.6   69.2   73.4   80.6   87.1   93.6  100.1  106.6  111.1  113.9  116.8  119.6  122.5  125.8  129.2  132.3  135.4  138.7  141.5  142.0  142.4  142.7  143.0  142.6  142.3  141.9  141.5  141.1  141.0  141.0  141.0  141.0  141.0  141.1  141.2  141.3  141.1  141.0  140.8
    0.0    0.0    0.2    0.6    1.0    1.7    2.2    2.7    3.5    4.2    5.9    7.4    8.9   10.5   12.4   13.9   15.4   16.0   16.8   17.6   18.6   20.7   22.8   24.4   25.5   26.7   27.8   28.9   30.3   31.8   33.3   34.8   36.5   39.2   42.0   44.7   47.4   50.2   53.3   57.1   60.8   64.6   68.8   73.6   79.8   86.3   92.8   99.3  105.5  110.6  113.6  116.5  119.4  122.3  125.4  128.6  131.9  135.2  138.5  141.8  142.2  142.5  142.7  142.9  142.8  142.4  142.1  141.7  141.3  141.0  141.0  141.0  141.0  141.0  141.0  141.0  140.8  140.6  140.6  140.8
    0.0    0.0    0.0    0.5    1.1    1.2    1.5    2.0    2.6    3.3    5.0    6.7    8.2    9.6   11.4   12.9   14.4   15.6   16.4   17.6   19.1   21.2   22.9   24.7   25.8   26.8   27.7   28.7   29.6   31.0   32.5   33.8   34.8   37.3   40.0   42.9   45.7   48.6   51.4   55.3   60.1   64.9   69.6   74.4   79.9   86.1   92.3   98.5  104.7  110.0  112.9  115.7  118.0  120.5  123.4  126.5  129.7  132.8  137.0  141.3  142.2  142.4  142.6  142.8  142.9  142.6  142.2  141.7  141.2  140.6  140.5  140.5  140.5  140.6  140.5  140.4  140.2  140.4  140.6  140.8
    0.0    0.0    0.0    0.5    1.1    1.5    1.4    1.4    1.8    2.4    3.9    5.8    7.4    8.9   10.3   12.1   13.8   15.6   16.8   17.9   19.6   21.2   22.6   24.5   26.3   27.3   28.2   28.7   28.7   30.2   31.4   32.4   33.8   36.3   39.4   42.5   45.5   48.1   50.6   55.0   59.7   64.4   68.8   73.2   77.8   84.2   90.5   96.8  102.5  107.7  110.0  112.3  114.9  117.8  120.6  123.7  128.0  132.3  136.6  140.8  142.1  142.3  142.5  142.7  142.8  142.3  141.8  141.2  140.6  140.1  139.9  140.0  140.0  140.0  139.9  139.9  140.0  140.1  140.2  140.3
    0.0    0.0    0.0    0.5    1.1    1.5    1.7    1.6    1.6    1.6    2.9    4.8    6.7    8.2    9.8   12.7   14.3   16.0   17.5   18.5   19.5   20.9   22.4   24.2   26.5   27.8   28.8   28.8   28.6   29.8   31.7   33.5   35.3   37.4   40.1   42.6   45.2   47.7   50.2   54.2   58.6   63.0   67.4   71.7   76.1   82.0   87.3   92.6   97.9  103.1  106.5  109.3  113.2  117.4  121.7  126.1  130.6  135.0  138.3  140.6  142.1  142.3  142.4  142.2  141.9  141.5  141.0  140.5  140.1  139.7  139.4  139.5  139.4  139.4  139.3  139.3  139.3  139.5  139.7  139.8
    0.0    0.0    0.0    0.5    1.2    1.5    1.9    1.9    1.8    1.8    2.0    4.0    6.0    7.7    9.3   13.3   14.9   16.5   18.2   19.1   19.7   20.7   22.2   23.9   26.3   28.3   29.1   28.9   29.4   30.5   32.4   34.1   35.4   36.8   39.2   41.7   44.3   47.1   50.1   53.8   58.1   62.5   66.9   71.7   76.8   81.8   86.9   92.0   97.1  102.6  107.8  112.1  116.4  120.7  125.0  129.3  132.8  135.2  137.5  139.9  142.0  141.8  141.6  141.4  141.2  140.9  140.5  140.2  139.8  139.4  138.9  138.9  138.8  138.8  138.8  138.7  138.8  138.9  139.1  139.3
    0.0    0.0    0.0    0.5    1.2    1.4    2.0    2.1    2.1    2.0    2.0    3.2    5.1    7.1    8.7   12.4   15.7   17.2   18.7   19.7   20.3   21.0   21.9   23.7   26.0   28.4   29.4   29.8   30.2   30.9   32.2   33.6   34.9   36.3   38.2   41.1   44.2   47.2   50.3   53.6   58.2   63.2   68.3   73.3   78.4   83.5   88.8   94.4   99.9  105.4  111.0  115.4  119.6  123.8  127.4  131.0  133.4  135.8  138.3  140.4  142.0  142.2  142.0  141.8  141.4  141.0  140.6  140.2  139.7  139.1  138.5  138.4  138.4  138.3  138.2  138.2  138.2  138.5  138.8  139.2
    0.0    0.0    0.0    0.5    1.2    1.4    1.9    2.4    2.3    2.3    2.2    2.4    4.3    6.3    8.2   11.5   16.4   17.9   19.4   20.1   20.8   21.5   22.4   23.6   26.0   28.5   29.4   29.7   30.0   30.3   31.7   33.0   34.3   35.5   38.5   41.5   44.5   47.6   50.3   55.0   60.1   65.1   70.2   75.2   79.6   84.3   90.0   95.8  101.5  107.3  113.2  117.4  121.2  124.8  128.3  131.9  134.5  136.9  138.6  140.3  142.0  142.7  142.4  141.9  141.5  141.1  140.5  139.9  139.3  138.7  138.1  137.9  137.9  137.8  137.7  137.4  137.2  137.6  137.9  138.3
    0.0    0.0    0.0    0.4    1.2    1.4    1.9    2.4    2.6    2.5    2.5    2.3    3.5    5.5    7.5   10.7   15.5   18.6   19.9   20.6   21.3   22.3   23.6   24.6   26.4   28.8   29.4   29.7   29.9   30.1   30.9   32.0   33.0   35.9   38.9   41.6   44.4   47.2   52.2   57.1   62.1   66.8   71.2   75.6   80.0   84.5   90.3   96.4  102.5  107.8  112.3  116.7  120.8  124.8  128.8  132.8  135.2  137.0  138.8  140.6  142.1  142.9  142.5  142.1  141.6  140.9  140.3  139.7  139.1  138.5  137.8  137.4  137.3  137.1  136.8  136.5  136.2  136.5  137.0  137.5
    0.0    0.0    0.0    0.4    1.3    1.3    1.9    2.4    2.8    2.8    2.7    2.6    2.8    5.0    7.1   10.3   15.1   19.3   20.4   21.1   21.8   22.8   24.3   25.8   26.9   29.2   29.4   29.7   29.7   29.6   29.7   30.7   33.4   36.0   38.6   41.2   44.4   49.3   53.8   58.2   62.7   67.1   71.5   75.9   80.9   86.0   91.8   97.7  102.3  106.9  111.5  116.3  120.5  124.7  128.9  133.1  136.2  137.9  139.7  140.7  141.8  142.8  142.7  142.0  141.4  140.8  140.2  139.5  138.9  138.2  137.6  136.9  136.5  136.2  135.9  135.7  135.6  135.9  136.4  136.9
    0.0    0.0    0.0    0.4    1.3    1.3    1.8    2.4    2.9    3.0    3.0    2.8    3.1    4.8    7.0   10.1   14.9   19.7   20.9   21.7   22.4   23.4   24.9   26.4   27.9   29.2   29.2   29.1   29.1   29.0   29.0   30.4   32.9   35.5   38.0   41.0   45.3   49.6   54.1   58.5   63.0   67.4   72.5   77.6   82.6   87.6   92.6   97.5  102.4  107.2  111.9  116.6  121.0  125.2  129.3  133.4  137.1  138.2  139.4  140.6  141.8  142.6  142.4  141.7  141.1  140.5  139.9  139.3  138.6  138.0  137.0  136.1  135.7  135.4  135.3  135.2  135.1  135.2  135.6  136.0
    0.0    0.0    0.0    0.4    1.3    1.3    1.8    2.3    2.9    3.3    3.2    3.1    3.6    4.8    6.8    9.8   14.7   19.6   21.3   22.1   22.9   23.9   25.4   26.9   28.3   28.9   28.8   28.6   28.5   28.5   28.4   29.5   32.0   34.9   38.2   41.5   45.5   49.9   54.3   58.7   63.0   67.6   72.5   77.5   82.6   88.0   93.2   98.1  102.9  107.6  112.3  116.9  121.4  125.8  130.5  135.0  137.6  139.0  140.2  141.4  141.8  142.0  142.0  141.4  140.8  140.2  139.6  139.0  138.2  137.2  136.3  135.3  135.0  134.9  134.8  134.7  134.6  134.5  134.9  135.3
    0.0    0.0    0.0    0.3    1.3    1.3    1.8    2.3    2.8    3.4    3.5    3.3    4.0    5.1    6.7    9.6   14.4   20.0   21.2   22.2   23.2   24.4   25.8   27.2   28.6   28.8   28.6   28.5   28.3   28.2   28.0   28.7   32.0   35.3   38.6   41.8   45.8   50.0   54.3   58.6   62.9   67.4   72.4   77.8   83.1   88.5   93.9   98.5  103.0  107.6  112.2  118.0  123.7  128.3  132.7  135.3  137.9  139.9  140.6  140.9  141.4  141.8  141.6  141.1  140.5  139.9  139.3  138.7  137.8  136.9  136.0  135.0  134.6  134.5  134.4  134.3  134.1  134.0  134.1  134.5
    0.0    0.0    0.0    0.3    1.3    1.2    1.8    2.3    2.8    3.4    3.7    3.7    4.5    5.5    6.9    9.4   14.8   20.2   21.2   22.2   23.3   24.4   25.9   27.3   28.7   28.2   28.0   27.8   27.7   27.5   27.5   27.8   31.1   34.4   38.2   42.7   47.1   51.3   55.5   60.0   64.5   69.0   74.5   80.1   84.9   89.3   93.7   98.2  102.8  108.3  114.3  120.3  126.2  130.4  133.0  135.7  138.8  140.3  140.7  141.2  141.5  141.3  141.1  140.7  140.1  139.5  139.0  138.6  137.7  136.8  135.8  134.8  134.2  134.0  133.9  133.8  133.7  133.9  134.0  134.2
    0.0    0.0    0.0    0.3    1.3    1.2    1.7    2.3    2.8    3.3    3.9    4.2    5.0    5.8    8.1   10.6   15.6   20.1   21.2   22.3   23.3   24.3   25.8   27.4   28.4   27.7   27.3   27.1   27.0   27.1   27.3   27.5   30.6   34.9   38.8   42.6   49.1   53.7   58.2   62.8   67.3   71.7   76.1   80.4   84.8   89.1   93.5   98.5  104.3  110.2  116.1  121.9  128.2  131.8  134.9  138.1  139.3  140.5  141.0  141.2  141.0  140.8  140.5  140.3  139.7  139.3  138.8  138.4  137.7  136.6  135.6  134.6  133.7  133.6  133.4  133.5  133.7  133.8  133.9  133.8
    0.0    0.0    0.0    0.2    1.3    1.2    1.7    2.2    2.8    3.3    3.8    4.1    4.6    5.4   10.1   13.8   17.4   19.9   21.3   22.3   23.3   24.3   25.7   27.3   28.0   27.3   26.6   26.5   26.7   27.0   27.4   27.0   28.5   32.3   37.7   44.4   51.2   56.1   60.6   64.7   68.7   72.6   76.7   81.0   85.4   89.2   93.4   98.0  103.8  109.7  115.7  122.4  129.1  134.2  137.2  138.3  139.5  140.6  140.9  140.7  140.5  140.4  140.2  139.9  139.4  139.0  138.5  138.1  137.6  136.6  135.6  134.6  133.6  133.1  133.2  133.2  133.1  132.9  132.5  132.4
    0.0    0.0    0.0    0.2    1.3    1.2    1.7    2.2    2.7    3.3    3.8    3.5    3.9    4.8    8.6   14.1   17.8   19.9   21.2   22.4   23.4   24.3   25.6   26.7   27.3   26.8   26.6   26.8   27.2   27.2   26.7   26.2   26.0   32.6   39.2   45.8   52.4   58.0   61.9   65.8   69.7   73.6   77.1   80.9   84.7   88.8   93.3   97.9  103.3  109.9  116.6  123.3  130.1  136.1  137.2  138.3  139.4  140.4  140.9  140.7  140.6  140.3  139.9  139.5  139.0  138.6  138.2  137.8  137.4  136.5  135.5  134.5  133.3  132.3  132.3  132.2  131.9  131.5  131.1  131.2
    0.0    0.0    0.0    0.1    1.3    1.1    1.6    2.2    2.7    3.2    3.8    3.4    3.2    4.2    6.9   12.4   17.8   20.1   21.2   22.4   23.4   24.4   25.4   26.3   27.2   27.3   27.3   27.3   26.9   26.3   25.7   25.7   26.5   31.5   38.1   45.3   53.6   60.2   64.1   67.8   70.2   73.0   76.5   80.2   84.2   88.7   93.7   99.5  105.8  112.7  119.7  125.3  130.8  136.2  137.6  138.4  139.2  140.2  140.9  140.7  140.3  139.9  139.5  139.1  138.7  138.3  137.9  137.5  137.0  136.2  135.0  133.9  132.7  131.5  131.3  131.0  130.8  130.7  130.6  130.6
    0.0    0.0    0.0    0.1    1.3    1.1    1.6    2.1    2.7    3.2    3.7    3.2    2.6    3.6    6.0   10.6   17.1   20.2   21.3   22.4   23.6   24.8   25.9   27.1   27.5   27.2   26.8   26.4   25.8   25.2   25.6   26.4   27.2   30.3   38.2   46.5   54.6   61.2   63.6   66.1   69.0   72.5   76.0   79.7   85.5   91.3   97.1  102.9  108.7  114.1  119.5  125.0  130.4  135.8  138.3  139.1  139.7  140.2  140.8  140.4  140.0  139.6  139.2  138.7  138.2  137.8  137.3  136.8  136.2  135.5  134.3  133.1  132.1  131.1  130.7  130.5  130.4  130.3  130.2  130.1
    0.0    0.0    0.0    0.0    1.3    1.2    1.6    2.1    2.6    3.2    3.7    3.1    2.4    3.0    5.4    9.9   17.8   20.2   21.2   22.2   23.9   25.2   26.4   27.1   26.8   26.2   25.6   25.2   24.7   25.5   26.1   26.7   27.4   30.2   38.2   46.3   52.4   58.3   62.0   65.0   68.5   72.0   75.6   79.1   84.5   90.5   97.2  103.8  110.5  115.8  121.1  126.4  131.7  135.8  137.9  138.4  139.0  139.6  140.2  140.1  139.7  139.3  138.8  138.3  137.7  137.2  136.6  136.0  135.4  134.8  133.8  132.8  131.8  130.8  130.3  130.1  130.0  129.9  129.6  129.2
    0.0    0.0    0.0    0.0    1.3    1.3    1.6    2.1    2.6    3.1    3.6    2.9    2.2    3.6    6.8   12.2   19.2   20.1   21.0   22.0   23.7   25.5   26.6   26.6   26.5   25.9   25.3   24.7   24.4   24.9   25.4   26.8   29.2   31.6   37.3   43.2   49.4   55.7   61.7   65.2   68.8   72.4   75.9   79.7   85.3   92.0   98.6  105.2  111.9  117.6  122.9  128.2  131.5  134.4  137.1  137.7  138.4  139.0  139.6  139.8  139.4  138.9  138.4  137.9  137.4  136.8  136.2  135.7  135.1  134.5  133.5  132.5  131.5  130.5  129.8  129.6  129.5  129.1  128.7  128.2
    0.0    0.0    0.0    0.0    1.3    1.4    1.5    2.0    2.6    3.1    3.5    2.8    3.3    5.5    9.8   15.4   19.2   19.5   19.6   19.7   21.0   22.7   24.9   25.9   25.9   25.5   24.9   24.3   23.7   24.2   26.2   28.5   30.3   32.8   36.2   42.5   49.3   56.8   63.0   66.5   70.2   74.0   77.8   81.6   87.0   93.6  100.2  106.8  113.3  119.4  124.3  127.2  130.5  134.1  136.5  137.5  138.1  138.8  139.2  139.5  139.0  138.5  138.0  137.6  137.2  136.7  136.1  135.5  134.8  134.2  133.3  132.3  131.3  130.3  129.3  129.0  128.6  128.3  128.0  128.0
    0.0    0.0    0.0    0.0    1.3    1.6    1.5    2.0    2.5    3.1    3.6    4.0    4.5    6.6   10.0   15.9   16.2   16.1   16.2   16.5   17.3   19.3   21.6   24.1   25.0   25.2   24.6   24.0   23.3   24.6   26.4   28.3   31.1   33.9   36.5   42.5   50.0   57.4   64.0   67.8   71.6   75.4   79.2   83.0   88.5   95.0  101.6  108.1  114.6  120.7  124.3  127.8  131.2  133.5  135.8  137.3  137.8  138.2  138.5  138.9  138.7  138.4  138.0  137.7  137.3  136.9  136.3  135.5  134.8  134.1  133.2  132.2  131.2  130.1  129.1  128.5  128.2  128.0  128.0  128.0
    0.0    0.0    0.0    0.0    1.3    1.7    1.5    2.0    2.5    3.1    4.1    5.0    5.5    7.8   10.7   14.0   13.5   12.9   12.9   13.4   15.0   17.0   19.8   22.7   24.0   24.3   24.5   23.8   23.6   24.4   26.6   29.3   31.7   34.2   36.7   40.8   48.2   55.8   63.3   67.2   71.0   75.2   80.0   84.8   89.6   96.1  102.7  108.8  114.9  121.0  125.1  128.2  130.5  132.8  135.2  137.1  137.5  137.9  138.4  138.5  138.5  138.1  137.8  137.5  137.2  137.0  136.3  135.5  134.7  133.9  133.2  132.1  131.1  130.0  128.9  128.1  128.0  128.0  128.0  128.0
    0.0    0.0    0.0    0.0    1.2    1.9    1.5    2.0    2.5    3.3    4.4    5.4    6.5    9.0   12.1   14.3   14.4   14.6   15.7   17.5   18.8   19.9   20.9   21.8   23.1   23.4   23.7   24.1   24.0   24.4   26.8   29.3   31.8   34.2   37.0   41.0   48.0   55.0   62.1   67.4   72.2   76.9   81.7   86.5   91.2   96.8  102.9  109.0  115.1  121.1  125.2  127.6  129.9  132.3  134.6  137.0  137.4  137.8  137.9  138.1  138.2  137.9  137.6  137.4  137.2  137.1  136.4  135.6  134.8  133.8  132.8  131.8  130.6  129.5  128.5  127.7  127.8  127.9  128.0  128.0
    0.0    0.0    0.0    0.0    1.2    2.0    1.4    1.9    2.5    3.6    4.7    5.6    6.6   11.2   14.4   17.0   18.2   18.9   19.8   21.2   22.5   23.8   24.0   23.2   22.8   23.1   23.5   23.9   24.3   24.3   26.7   29.4   33.3   37.3   41.2   45.2   50.8   56.4   62.0   67.2   72.0   76.8   81.7   86.6   91.5   96.8  102.9  109.2  115.8  122.4  126.7  128.6  130.4  132.3  134.1  136.5  137.2  137.4  137.5  137.6  137.9  137.9  137.7  137.5  137.3  136.9  136.0  135.0  134.0  133.1  132.1  131.1  130.0  129.1  128.1  127.2  127.3  127.4  127.5  127.6
    0.0    0.0    0.0    0.0    1.2    2.2    1.4    1.9    2.4    3.4    4.5    5.7    7.7   13.5   16.4   18.5   19.9   21.0   21.9   22.1   22.8   23.5   23.4   23.1   22.5   22.9   23.3   23.7   24.2   25.0   28.0   31.7   35.4   39.2   42.6   45.8   49.9   55.7   61.4   67.1   72.0   76.9   81.8   86.8   91.7   96.2  102.8  109.5  116.1  122.8  127.8  129.5  131.2  133.0  134.7  136.0  136.7  136.8  136.9  137.4  137.8  137.9  137.7  137.5  136.7  136.0  135.2  134.2  133.3  132.4  131.5  130.6  129.7  128.8  127.9  127.1  126.8  126.9  127.0  127.1
    0.0    0.0    0.0    0.0    1.2    2.3    1.4    1.9    2.3    3.1    4.2    5.7    8.8   15.1   17.5   19.0   20.3   21.1   21.9   22.4   22.3   22.3   22.4   22.6   22.7   23.2   23.7   24.3   25.1   26.4   28.9   32.6   36.0   39.2   42.4   45.7   49.1   54.6   60.6   66.7   71.7   76.6   81.3   85.8   90.3   95.0  100.5  107.2  114.1  121.0  127.7  129.4  131.1  132.4  133.7  135.0  136.2  136.4  136.9  137.3  137.7  137.9  137.3  136.6  136.0  135.4  135.0  134.2  133.4  132.5  131.5  130.5  129.6  128.7  128.1  127.0  126.4  126.5  126.6  126.7
    0.0    0.0    0.0    0.0    1.1    2.5    1.4    1.9    2.2    2.8    3.7    5.1    7.5   12.3   15.5   18.3   20.3   21.1   22.0   22.6   22.8   22.8   23.1   23.3   23.5   23.8   24.3   25.3   26.6   27.8   29.4   32.5   35.7   39.0   42.3   45.6   48.9   53.8   60.0   66.1   71.0   75.5   79.9   84.5   89.1   93.8   98.9  105.7  112.5  119.4  126.2  128.8  130.1  131.3  132.6  134.0  135.7  136.3  136.8  137.1  137.4  137.6  137.0  136.4  135.8  135.5  135.1  134.4  133.4  132.5  131.5  130.4  129.6  128.9  128.3  126.9  126.1  126.0  126.1  126.0
    0.0    0.0    0.0    0.0    1.1    2.6    1.3    1.8    2.2    2.5    3.3    4.1    6.5    9.9   13.6   18.0   20.3   21.1   21.6   22.1   22.8   23.1   23.5   23.9   24.1   24.4   25.3   26.4   27.4   28.6   29.9   32.3   35.5   38.8   42.1   45.4   48.6   53.0   59.0   64.3   69.6   74.1   78.6   83.3   88.2   93.1   98.0  104.6  111.5  117.5  123.4  127.4  128.7  130.1  131.8  133.5  134.9  136.1  136.3  136.6  136.9  137.2  136.7  136.3  135.9  135.4  134.9  134.3  133.4  132.4  131.4  130.5  129.8  129.2  128.3  127.4  126.5  126.4  126.2  125.6
    0.0    0.0    0.0    0.0    1.1    2.8    1.3    1.8    2.1    2.4    3.0    3.8    6.2    9.9   13.7   17.9   20.2   20.7   21.2   21.7   21.5   20.7   21.0   21.4   21.9   23.5   25.9   27.0   28.1   29.4   30.7   32.1   35.3   38.6   41.8   45.1   48.3   51.9   57.2   62.5   67.9   72.9   77.8   82.7   87.6   92.4   97.3  102.9  108.9  114.8  120.8  125.9  127.3  128.6  130.0  131.9  134.1  135.6  135.8  136.1  136.4  136.6  136.4  135.8  135.3  134.7  134.4  134.1  133.2  132.3  131.5  130.7  129.9  129.3  128.6  128.0  127.2  126.7  125.7  125.2
    0.0    0.0    0.0    0.0    1.0    2.8    1.3    1.7    2.0    2.4    3.4    4.3    6.8   10.4   14.3   18.5   19.7   20.2   20.7   21.3   20.4   19.2   18.4   19.2   19.9   22.9   26.3   27.6   28.9   30.2   31.4   32.6   34.9   38.1   41.4   44.7   47.9   51.2   56.0   61.3   66.3   71.2   76.1   80.9   85.8   90.9   96.0  101.4  107.4  113.3  118.0  122.7  125.0  126.7  128.9  131.2  133.4  135.1  135.3  135.6  135.8  136.1  136.4  135.5  134.7  134.1  133.9  133.7  132.9  132.1  131.4  130.8  130.0  129.4  128.7  127.9  127.1  126.2  125.3  124.9
    0.0    0.0    0.0    0.0    1.0    2.8    1.3    1.7    2.0    2.9    3.9    4.8    7.5   10.9   14.8   17.9   18.9   19.7   20.3   20.6   19.5   18.5   18.1   18.1   19.5   22.8   26.1   28.5   29.7   30.9   32.1   33.3   34.6   37.8   41.0   44.2   47.5   50.8   54.8   59.7   64.6   69.5   74.4   79.5   84.6   89.6   94.7  100.0  105.0  109.8  114.9  119.9  123.8  126.0  128.3  130.5  132.7  134.7  135.0  135.0  135.3  135.5  135.8  135.3  134.4  133.9  133.6  133.3  132.7  132.0  131.3  130.5  129.8  129.0  128.3  127.4  126.5  125.7  125.0  124.6
    0.0    0.0    0.0    0.0    1.0    2.8    1.2    1.6    2.1    3.4    4.3    5.2    8.2   11.5   15.4   17.1   17.8   18.4   19.4   19.7   18.8   17.8   17.6   19.3   21.3   24.6   27.6   30.0   31.2   32.4   33.5   34.5   35.5   38.2   41.4   44.6   47.8   50.8   54.0   58.9   63.8   68.2   72.9   78.0   83.1   88.2   93.4   98.5  103.5  108.6  113.5  118.5  123.2  125.4  127.6  129.8  132.0  134.0  135.0  135.0  135.0  135.1  135.4  134.7  134.3  133.9  133.6  133.2  132.6  131.8  130.9  130.2  129.4  128.6  127.7  126.9  126.0  125.3  124.9  124.7
    0.0    0.0    0.0    0.0    0.9    2.8    1.2    1.6    2.6    3.9    4.8    5.7    8.9   12.1   15.3   16.0   16.5   17.0   17.4   17.2   17.0   17.1   19.2   21.3   23.4   26.1   28.8   31.5   32.6   33.6   34.6   35.6   36.5   38.5   41.6   44.7   47.7   50.8   53.9   58.4   62.7   66.9   71.4   76.5   81.7   86.9   92.0   97.2  102.3  107.2  112.4  117.9  122.0  124.2  127.0  129.2  131.2  133.3  135.0  135.0  135.0  135.0  135.0  134.7  134.3  134.0  133.6  133.2  132.7  131.9  131.0  130.1  129.2  128.3  127.4  126.6  126.0  125.4  124.9  124.7
    0.0    0.0    0.0    0.0    0.9    2.8    1.2    1.9    3.1    4.3    5.2    6.3    9.6   12.6   13.8   14.2   14.6   15.4   15.9   15.9   16.6   18.6   20.6   22.4   24.0   27.0   29.9   32.6   33.9   35.0   36.0   36.6   37.1   38.7   41.8   44.8   47.9   50.9   53.7   57.3   61.6   65.9   69.7   74.9   80.1   85.3   90.5   96.3  101.9  107.7  113.2  118.7  120.3  121.8  124.6  127.7  130.5  133.1  135.0  135.0  134.9  134.7  134.5  134.2  134.0  133.8  133.5  133.3  132.8  131.8  130.9  129.9  129.0  128.0  127.3  126.7  126.1  125.6  125.0  124.8
    0.0    0.0    0.0    0.0    0.8    2.8    1.1    2.5    3.8    4.9    6.1    7.0    8.7   11.6   12.5   12.0   12.5   13.8   14.7   16.0   17.4   18.7   20.7   22.3   24.8   27.7   30.6   33.5   35.3   35.8   36.4   37.0   37.5   38.9   41.8   44.6   47.5   50.3   53.1   56.4   60.6   64.4   68.2   73.0   78.2   84.3   90.4   93.9   96.0  105.2  114.0  117.9  118.7  119.8  123.0  125.9  128.7  131.5  134.9  134.8  134.6  134.3  134.1  133.8  133.5  133.3  133.1  132.8  132.5  131.7  130.7  129.7  128.8  127.8  127.2  126.6  126.0  125.4  124.8  124.5
    0.0    0.0    0.0    0.0    0.8    2.8    1.4    3.0    4.1    5.1    7.0    8.0    9.5   11.1   11.8   12.0   11.8   13.0   13.4   14.8   16.0   17.8   20.1   22.5   25.3   28.1   30.9   33.7   35.5   36.1   36.6   37.3   38.7   40.3   42.9   45.5   48.1   50.7   53.0   55.0   58.8   62.6   66.5   72.0   78.4   84.4   90.5   91.1   92.4  100.3  109.6  114.7  117.4  118.3  121.3  124.1  127.4  130.9  134.4  134.8  134.6  134.2  133.8  133.4  133.1  132.9  132.6  132.4  132.1  131.5  130.5  129.6  128.6  127.6  126.9  126.3  125.7  125.1  124.4  124.1
    0.0    0.0    0.0    0.0    0.7    2.8    1.6    3.1    4.4    5.3    7.7    8.9   10.4   11.8   12.6   12.3   11.6   12.6   12.1   13.0   15.6   18.8   21.8   24.1   25.3   28.1   30.9   33.2   35.2   36.4   37.9   39.3   40.5   41.8   43.8   45.9   48.0   49.8   51.2   52.7   56.4   60.8   65.1   69.8   76.8   83.8   88.5   89.8   91.2   96.1  103.6  107.9  112.3  116.6  120.0  123.4  126.9  130.4  133.8  134.7  134.3  133.9  133.4  133.0  132.7  132.5  132.2  132.0  131.7  131.3  130.4  129.4  128.4  127.4  126.6  126.0  125.4  124.7  124.1  123.7
    0.0    0.0    0.0    0.0    0.6    2.8    1.9    3.1    4.5    5.6    7.9    9.9   11.3   12.3   13.2   12.5   11.8   11.5   11.6   13.3   16.8   20.2   23.4   25.5   27.2   28.5   30.8   32.7   34.5   36.0   37.2   38.4   39.8   41.2   42.9   44.9   46.3   47.8   49.1   50.7   54.1   58.5   62.9   68.1   75.0   81.7   84.3   86.9   89.4   91.9   97.1  102.7  108.2  113.2  117.6  121.0  124.5  127.9  131.9  134.4  133.9  133.5  133.1  132.7  132.3  132.1  131.8  131.6  131.3  131.1  130.2  129.3  128.3  127.3  126.3  125.7  125.1  124.5  123.9  123.4
    0.0    0.0    0.0    0.0    0.6    2.8    2.2    3.2    4.5    5.9    8.0   10.6   12.4   14.0   14.5   14.4   13.8   13.3   13.2   14.7   18.1   20.9   23.4   25.9   27.5   29.2   30.6   31.8   33.6   35.1   36.4   37.8   39.2   40.6   41.4   42.7   44.1   45.6   47.2   48.8   51.3   56.5   61.7   66.9   73.3   77.1   79.7   82.7   86.5   89.7   94.6  100.1  105.1  110.0  115.0  118.6  122.2  126.1  130.0  134.0  133.5  133.1  132.7  132.3  131.9  131.7  131.4  131.2  130.9  130.6  129.9  128.9  128.0  127.0  126.2  125.6  125.0  124.4  123.9  123.2
    0.0    0.0    0.0    0.0    0.5    2.7    2.4    3.4    5.0    6.6    9.3   12.1   14.5   15.8   15.8   15.7   15.7   15.4   15.1   16.0   18.4   20.6   22.9   25.4   27.9   29.6   30.9   32.1   33.4   34.4   35.8   37.2   38.3   38.8   39.3   40.5   42.1   43.8   45.6   47.4   49.3   54.4   60.0   65.5   70.4   74.3   78.1   81.6   84.8   88.1   92.1   97.1  102.1  107.1  112.1  116.4  120.3  124.2  128.2  132.1  132.4  132.0  131.9  131.7  131.6  131.3  131.0  130.7  130.4  130.2  129.6  128.7  127.9  127.1  126.3  125.7  125.1  124.5  123.7  122.9
    0.0    0.0    0.0    0.0    0.5    2.7    2.7    4.7    6.4    8.0   11.2   13.8   16.5   17.1   17.2   17.4   17.6   17.4   17.3   16.8   17.9   19.5   21.7   24.8   28.3   29.9   31.2   32.4   33.1   33.9   35.2   35.8   36.2   36.8   37.5   38.9   40.7   42.5   44.4   46.2   48.0   51.7   57.2   63.0   69.6   73.5   76.8   80.0   83.4   86.8   90.4   95.5  100.7  106.0  112.3  117.0  120.5  124.1  127.6  130.8  131.8  131.6  131.5  131.4  131.2  131.0  130.7  130.3  129.8  129.9  129.8  128.9  128.1  127.3  126.4  125.7  125.0  124.2  123.4  122.7
    0.0    0.0    0.0    0.0    0.4    2.7    3.0    5.5    7.7    9.5   12.8   15.7   18.3   19.1   19.3   19.5   19.7   19.7   19.2   18.3   19.4   20.6   22.1   24.2   28.6   30.2   31.3   32.0   32.8   33.7   34.2   34.6   35.1   35.8   36.4   37.6   39.4   41.3   42.9   44.5   46.1   48.7   54.5   61.1   67.3   71.9   75.7   79.2   82.7   86.1   89.5   94.4  100.2  106.5  112.8  117.6  120.8  124.0  127.1  129.5  131.3  131.2  131.0  130.8  130.6  130.3  129.8  129.4  129.6  129.8  130.0  129.1  128.1  127.2  126.3  125.4  124.6  123.9  123.2  122.6
    0.0    0.0    0.0    0.0    0.3    2.7    3.2    6.3    9.1   11.1   14.4   17.7   19.8   20.7   21.5   21.7   21.9   22.1   21.7   21.3   22.0   23.5   23.9   26.4   28.9   30.2   31.1   32.0   32.9   33.7   34.1   34.5   34.9   35.3   35.7   36.4   38.0   39.6   41.2   42.8   44.4   46.2   51.7   57.8   63.8   68.8   72.7   76.5   80.4   84.2   88.7   94.1  100.1  106.2  112.0  117.1  120.4  123.3  125.7  128.2  130.7  130.5  130.2  129.9  129.6  129.4  129.2  129.3  129.3  129.4  129.4  128.7  127.8  126.9  126.0  125.1  124.4  123.9  123.3  122.8
    0.0    0.0    0.0    0.0    0.2    2.6    3.9    7.0   10.1   12.7   16.0   19.2   21.2   21.9   22.7   23.3   23.4   23.6   24.0   24.5   24.9   25.0   26.4   28.9   29.7   30.4   31.1   32.0   32.9   33.6   34.0   34.4   34.8   35.2   35.6   36.0   37.7   39.3   41.0   42.8   44.7   46.6   51.0   56.2   61.3   66.3   70.8   75.4   79.9   84.3   88.5   93.4   99.5  105.3  110.6  115.9  119.6  122.1  124.6  127.1  129.6  130.1  129.8  129.4  128.9  128.7  128.7  128.8  128.8  128.8  128.8  128.5  127.5  126.6  125.7  124.9  124.3  123.7  123.2  122.6
    0.0    0.0    0.0    0.0    0.2    2.6    4.7    7.8   10.9   13.8   16.8   19.8   21.8   22.8   23.6   24.4   24.8   25.1   25.3   25.6   26.1   26.4   28.4   29.3   30.1   30.8   31.4   32.0   32.9   33.5   33.7   34.1   34.5   35.0   35.4   35.9   37.5   39.5   41.4   43.3   45.2   47.1   50.8   56.1   61.3   66.6   71.2   75.6   79.8   84.1   88.4   92.8   98.6  103.9  109.1  114.3  118.7  121.2  123.7  126.1  128.5  129.5  129.0  128.5  128.4  128.3  128.3  128.3  128.3  128.4  128.4  128.3  127.3  126.5  125.6  124.7  124.0  123.4  122.9  122.3
    0.0    0.0    0.0    0.0    0.0    2.5    5.4    8.4   11.4   14.3   17.3   20.3   22.4   23.2   24.3   25.3   26.0   26.0   26.3   26.6   27.3   27.9   28.8   29.6   30.4   31.1   31.7   32.4   32.9   33.1   33.2   33.6   34.0   34.4   34.8   35.3   36.6   38.5   40.5   42.3   44.0   46.9   50.8   56.1   61.4   66.4   70.8   75.0   79.3   83.6   87.9   92.6   97.6  102.6  107.6  112.6  117.7  120.1  122.4  124.6  126.8  128.6  128.2  128.1  128.0  127.9  127.8  127.9  127.9  127.9  127.9  128.0  127.2  126.4  125.6  124.7  123.7  123.2  122.6  122.1
    0.0    0.0    0.0    0.0    0.0    2.4    4.2    8.9   11.9   14.9   17.7   20.7   23.1   23.9   24.7   25.7   26.7   27.1   27.2   27.7   28.0   28.3   29.2   30.0   30.7   31.3   31.9   32.5   32.6   32.8   32.9   33.1   33.5   33.9   34.3   34.7   35.5   37.2   38.9   40.6   44.0   47.5   50.9   56.1   60.6   65.2   69.6   73.9   78.4   83.2   88.0   92.8   97.7  102.7  107.4  111.9  116.4  119.3  121.4  123.5  125.6  127.7  127.8  127.7  127.6  127.5  127.4  127.4  127.4  127.5  127.7  127.9  127.4  126.6  125.6  124.6  123.6  123.0  122.4  121.8
